# .PCD v0.7 - Point Cloud Data file format
VERSION 0.7
FIELDS x y z
SIZE 4 4 4
TYPE F F F
COUNT 1 1 1
WIDTH 1024
HEIGHT 1
VIEWPOINT 0 0 0 1 0 0 0
POINTS 1024
DATA ascii
4.676579 0 -0.099927783
4.6709461 0.22946209 -0.099927783
4.6540613 0.4583714 -0.099927783
4.6259651 0.68617654 -0.099927783
4.5867252 0.91232872 -0.099927783
4.5364361 1.1362832 -0.099927783
4.4752188 1.3575003 -0.099927783
4.4032211 1.5754473 -0.099927783
4.3206162 1.7895992 -0.099927783
4.2276034 1.9994401 -0.099927783
4.1244063 2.2044642 -0.099927783
4.0112739 2.4041781 -0.099927783
3.8884783 2.5981004 -0.099927783
0.97385967 0.72223514 1.9000187
0.9372493 0.76914883 1.9000187
0.89838117 0.8142097 1.9000187
0.85734892 0.85730922 1.9000187
0.8142513 0.89834344 1.9000187
0.76919228 0.93721366 1.9000187
0.72228026 0.97382617 1.9000187
2.5982807 3.8883579 -0.099927783
2.4043639 4.0111623 -0.099927783
2.2046554 4.1243043 -0.099927783
1.9996359 4.2275105 -0.099927783
1.7897993 4.3205333 -0.099927783
1.5756513 4.4031482 -0.099927783
1.3577076 4.4751558 -0.099927783
1.1364933 4.5363832 -0.099927783
0.91254121 4.5866828 -0.099927783
0.68639088 4.6259332 -0.099927783
0.45858702 4.6540399 -0.099927783
0.22967848 4.6709356 -0.099927783
0.00021665091 4.676579 -0.099927783
-0.22924569 4.6709566 -0.099927783
-0.45815581 4.6540823 -0.099927783
-0.68596226 4.6259966 -0.099927783
-0.91211623 4.5867672 -0.099927783
-1.136073 4.5364885 -0.099927783
-1.357293 4.4752817 -0.099927783
-1.5752434 4.4032941 -0.099927783
-1.789399 4.3206992 -0.099927783
-1.9992442 4.2276959 -0.099927783
-2.2042732 4.1245084 -0.099927783
-2.4039924 4.011385 -0.099927783
-2.5979204 3.8885987 -0.099927783
-0.72219002 0.97389311 1.9000187
-0.76910543 0.93728495 1.9000187
-0.8141681 0.8984189 1.9000187
-0.85726947 0.85738862 1.9000187
-0.89830571 0.81429297 1.9000187
-0.93717802 0.76923567 1.9000187
-0.97379273 0.72232538 1.9000187
-3.8882377 2.5984607 -0.099927783
-4.0110512 2.4045498 -0.099927783
-4.1242018 2.2048464 -0.099927783
-4.2274179 1.9998317 -0.099927783
-4.3204503 1.7899995 -0.099927783
-4.4030752 1.5758554 -0.099927783
-4.4750929 1.3579149 -0.099927783
-4.5363307 1.1367035 -0.099927783
-4.5866404 0.9127537 -0.099927783
-4.6259012 0.68660516 -0.099927783
-4.6540189 0.45880264 -0.099927783
-4.6709247 0.22989486 -0.099927783
-4.676579 0.00043330182 -0.099927783
-4.6709671 -0.22902931 -0.099927783
-4.6541038 -0.45794019 -0.099927783
-4.6260285 -0.68574792 -0.099927783
-4.5868096 -0.91190374 -0.099927783
-4.536541 -1.1358628 -0.099927783
-4.4753447 -1.3570857 -0.099927783
-4.403367 -1.5750394 -0.099927783
-4.3207822 -1.7891989 -0.099927783
-4.2277884 -1.9990484 -0.099927783
-4.1246104 -2.2040823 -0.099927783
-4.0114965 -2.4038064 -0.099927783
-3.8887191 -2.5977402 -0.099927783
-0.97392654 -0.7221449 1.9000187
-0.93732059 -0.76906198 1.9000187
-0.89845663 -0.81412649 1.9000187
-0.85742831 -0.85722977 1.9000187
-0.81433457 -0.89826804 1.9000187
-0.76927912 -0.93714243 1.9000187
-0.72237045 -0.97375929 1.9000187
-2.5986409 -3.8881173 -0.099927783
-2.4047356 -4.0109396 -0.099927783
-2.2050376 -4.1240997 -0.099927783
-2.0000277 -4.2273254 -0.099927783
-1.7901996 -4.3203673 -0.099927783
-1.5760593 -4.4030023 -0.099927783
-1.3581222 -4.4750299 -0.099927783
-1.1369137 -4.5362778 -0.099927783
-0.91296619 -4.5865984 -0.099927783
-0.68681943 -4.6258698 -0.099927783
-0.45901823 -4.6539974 -0.099927783
-0.23011126 -4.6709142 -0.099927783
-0.00064995274 -4.676579 -0.099927783
0.22881292 -4.6709781 -0.099927783
0.45772457 -4.6541247 -0.099927783
0.68553364 -4.6260605 -0.099927783
0.91169125 -4.5868516 -0.099927783
1.1356527 -4.5365939 -0.099927783
1.3568783 -4.4754076 -0.099927783
1.5748354 -4.40344 -0.099927783
1.7889987 -4.3208647 -0.099927783
1.9988525 -4.227881 -0.099927783
2.203891 -4.1247125 -0.099927783
2.4036207 -4.0116076 -0.099927783
2.5975599 -3.8888395 -0.099927783
0.72209978 -0.97396004 1.9000187
0.76901859 -0.93735617 1.9000187
0.81408483 -0.89849436 1.9000187
0.85719001 -0.85746807 1.9000187
0.89823031 -0.81437618 1.9000187
0.93710679 -0.76932251 1.9000187
0.9737258 -0.72241557 1.9000187
3.8879969 -2.5988209 -0.099927783
4.010828 -2.4049215 -0.099927783
4.1239977 -2.2052286 -0.099927783
4.2272329 -2.0002234 -0.099927783
4.3202844 -1.7903998 -0.099927783
4.4029288 -1.5762633 -0.099927783
4.474967 -1.3583295 -0.099927783
4.5362253 -1.1371237 -0.099927783
4.586556 -0.91317868 -0.099927783
4.6258378 -0.68703377 -0.099927783
4.653976 -0.45923385 -0.099927783
4.6709037 -0.23032764 -0.099927783
5.1793137 0 -0.010499642
5.1730757 0.25412938 -0.010499642
5.1543756 0.50764662 -0.010499642
5.1232591 0.75994092 -0.010499642
5.0798006 1.0104046 -0.010499642
5.0241055 1.2584342 -0.010499642
4.9563074 1.5034324 -0.010499642
4.8765697 1.7448089 -0.010499642
4.7850852 1.9819821 -0.010499642
4.6820731 2.214381 -0.010499642
4.5677824 2.4414456 -0.010499642
4.4424882 2.6626287 -0.010499642
4.3064919 2.8773978 -0.010499642
4.1601219 3.0852354 -0.010499642
0.96641767 0.79308569 1.9698794
0.92633992 0.83954895 1.9698794
0.88403064 0.88398969 1.9698794
0.83959186 0.926301 1.9698794
0.79313046 0.96638089 1.9698794
3.085428 4.1599789 -0.010499642
2.8775973 4.3063588 -0.010499642
2.6628344 4.4423647 -0.010499642
2.4416571 4.5676694 -0.010499642
2.2145979 4.6819706 -0.010499642
1.9822038 4.7849932 -0.010499642
1.7450348 4.8764892 -0.010499642
1.503662 4.9562378 -0.010499642
1.258667 5.0240469 -0.010499642
1.0106399 5.0797539 -0.010499642
0.76017827 5.1232238 -0.010499642
0.5078854 5.1543522 -0.010499642
0.25436905 5.1730638 -0.010499642
0.00023994102 5.1793137 -0.010499642
-0.25388974 5.1730871 -0.010499642
-0.50740784 5.1543989 -0.010499642
-0.75970358 5.1232939 -0.010499642
-1.0101693 5.0798473 -0.010499642
-1.2582015 5.0241637 -0.010499642
-1.5032028 4.956377 -0.010499642
-1.7445829 4.8766508 -0.010499642
-1.9817605 4.7851768 -0.010499642
-2.214164 4.6821756 -0.010499642
-2.4412339 4.5678954 -0.010499642
-2.6624229 4.4426112 -0.010499642
-2.8771982 4.3066254 -0.010499642
-3.0850427 4.160265 -0.010499642
-0.79304093 0.96645439 1.9698794
-0.83950603 0.92637879 1.9698794
-0.88394874 0.88407159 1.9698794
-0.92626214 0.83963472 1.9698794
-0.96634418 0.79317522 1.9698794
-4.1598363 3.0856209 -0.010499642
-4.3062253 2.8777969 -0.010499642
-4.4422412 2.6630404 -0.010499642
-4.5675559 2.4418688 -0.010499642
-4.6818681 2.2148149 -0.010499642
-4.7849011 1.9824256 -0.010499642
-4.8764081 1.7452607 -0.010499642
-4.9561682 1.5038916 -0.010499642
-5.0239887 1.2588997 -0.010499642
-5.0797071 1.0108752 -0.010499642
-5.1231885 0.76041561 -0.010499642
-5.1543283 0.50812417 -0.010499642
-5.1730518 0.25460869 -0.010499642
-5.1793137 0.00047988203 -0.010499642
-5.173099 -0.2536501 -0.010499642
-5.1544223 -0.50716901 -0.010499642
-5.1233292 -0.75946623 -0.010499642
-5.0798941 -1.0099339 -0.010499642
-5.0242219 -1.2579688 -0.010499642
-4.9564466 -1.5029732 -0.010499642
-4.8767314 -1.744357 -0.010499642
-4.7852688 -1.9815388 -0.010499642
-4.6822782 -2.2139473 -0.010499642
-4.5680084 -2.4410222 -0.010499642
-4.4427347 -2.6622171 -0.010499642
-4.3067584 -2.8769987 -0.010499642
-4.1604075 -3.0848498 -0.010499642
-0.96649116 -0.79299617 1.9698794
-0.92641771 -0.83946311 1.9698794
-0.88411254 -0.88390779 1.9698794
-0.83967763 -0.92622322 1.9698794
-0.79321998 -0.9663074 1.9698794
-3.0858135 -4.1596932 -0.010499642
-2.8779962 -4.3060923 -0.010499642
-2.6632462 -4.4421182 -0.010499642
-2.4420803 -4.5674429 -0.010499642
-2.2150316 -4.6817651 -0.010499642
-1.9826472 -4.7848096 -0.010499642
-1.7454866 -4.8763275 -0.010499642
-1.5041212 -4.9560986 -0.010499642
-1.2591325 -5.0239305 -0.010499642
-1.0111105 -5.0796599 -0.010499642
-0.76065296 -5.1231532 -0.010499642
-0.50836295 -5.154305 -0.010499642
-0.25484836 -5.1730399 -0.010499642
-0.000719823 -5.1793137 -0.010499642
0.25341043 -5.173111 -0.010499642
0.50693023 -5.1544461 -0.010499642
0.75922889 -5.1233644 -0.010499642
1.0096986 -5.0799408 -0.010499642
1.257736 -5.0242801 -0.010499642
1.5027436 -4.9565163 -0.010499642
1.7441311 -4.8768125 -0.010499642
1.9813172 -4.7853603 -0.010499642
2.2137303 -4.6823807 -0.010499642
2.4408107 -4.5681214 -0.010499642
2.6620111 -4.4428582 -0.010499642
2.8767991 -4.3068919 -0.010499642
3.0846572 -4.1605506 -0.010499642
0.79295141 -0.96652788 1.9698794
0.83942014 -0.92645657 1.9698794
0.88386685 -0.88415349 1.9698794
0.9261843 -0.83972055 1.9698794
0.96627069 -0.79326475 1.9698794
4.1595502 -3.0860062 -0.010499642
4.3059587 -2.8781958 -0.010499642
4.4419947 -2.6634519 -0.010499642
4.5673299 -2.442292 -0.010499642
4.6816626 -2.2152486 -0.010499642
4.7847176 -1.9828688 -0.010499642
4.8762465 -1.7457125 -0.010499642
4.9560285 -1.5043508 -0.010499642
5.0238719 -1.2593652 -0.010499642
5.0796132 -1.0113459 -0.010499642
5.1231179 -0.76089031 -0.010499642
5.1542811 -0.50860173 -0.010499642
5.1730285 -0.255088 -0.010499642
6.0526285 0 -0.031670641
6.0453382 0.29697964 -0.031670641
6.0234852 0.5932439 -0.031670641
5.9871216 0.88807905 -0.031670641
5.9363356 1.1807748 -0.031670641
5.8712492 1.4706262 -0.031670641
5.7920194 1.756935 -0.031670641
5.6988368 2.0390112 -0.031670641
5.5919261 2.3161759 -0.031670641
5.4715447 2.5877607 -0.031670641
5.3379831 2.853112 -0.031670641
5.1915622 3.1115901 -0.031670641
5.0326347 3.3625727 -0.031670641
4.8615847 3.6054549 -0.031670641
4.678823 3.8396518 -0.031670641
4.4847898 4.0645995 -0.031670641
4.2799535 4.2797556 -0.031670641
4.0648069 4.4846015 -0.031670641
3.8398688 4.6786451 -0.031670641
3.6056802 4.8614173 -0.031670641
3.3628058 5.0324793 -0.031670641
3.1118307 5.1914177 -0.031670641
2.8533592 5.3378506 -0.031670641
2.5880144 5.4714251 -0.031670641
2.3164349 5.5918188 -0.031670641
2.0392754 5.6987424 -0.031670641
1.7572032 5.7919378 -0.031670641
1.4708983 5.871181 -0.031670641
1.1810498 5.9362807 -0.031670641
0.88835639 5.9870806 -0.031670641
0.59352291 6.0234575 -0.031670641
0.29725972 6.0453243 -0.031670641
0.00028039888 6.0526285 -0.031670641
-0.29669958 6.045352 -0.031670641
-0.59296483 6.0235124 -0.031670641
-0.88780165 5.9871626 -0.031670641
-1.1804998 5.9363904 -0.031670641
-1.4703542 5.8713174 -0.031670641
-1.7566667 5.7921009 -0.031670641
-2.0387473 5.6989312 -0.031670641
-2.3159168 5.5920334 -0.031670641
-2.5875072 5.4716649 -0.031670641
-2.8528647 5.3381152 -0.031670641
-3.1113496 5.1917062 -0.031670641
-3.3623395 5.0327907 -0.031670641
-3.6052299 4.8617516 -0.031670641
-3.8394351 4.6790009 -0.031670641
-4.0643916 4.4849782 -0.031670641
-4.2795572 4.2801518 -0.031670641
-4.4844136 4.0650148 -0.031670641
-4.6784668 3.8400855 -0.031670641
-4.8612504 3.6059055 -0.031670641
-5.0323234 3.363039 -0.031670641
-5.1912737 3.1120713 -0.031670641
-5.3377185 2.8536065 -0.031670641
-5.4713049 2.5882678 -0.031670641
-5.5917115 2.316694 -0.031670641
-5.698648 2.0395393 -0.031670641
-5.7918568 1.7574716 -0.031670641
-5.8711128 1.4711702 -0.031670641
-5.9362264 1.1813248 -0.031670641
-5.9870391 0.88863373 -0.031670641
-6.0234299 0.59380198 -0.031670641
-6.0453105 0.29753977 -0.031670641
-6.0526285 0.00056079775 -0.031670641
-6.0453658 -0.29641953 -0.031670641
-6.02354 -0.59268576 -0.031670641
-5.9872041 -0.88752431 -0.031670641
-5.9364448 -1.1802248 -0.031670641
-5.8713856 -1.4700822 -0.031670641
-5.792182 -1.7563983 -0.031670641
-5.6990256 -2.0384834 -0.031670641
-5.5921407 -2.3156576 -0.031670641
-5.4717846 -2.5872538 -0.031670641
-5.3382473 -2.8526173 -0.031670641
-5.1918502 -3.111109 -0.031670641
-5.0329466 -3.3621063 -0.031670641
-4.8619184 -3.6050045 -0.031670641
-4.6791787 -3.8392184 -0.031670641
-4.4851665 -4.0641837 -0.031670641
-4.2803502 -4.2793589 -0.031670641
-4.0652227 -4.4842253 -0.031670641
-3.8403022 -4.6782889 -0.031670641
-3.6061306 -4.8610835 -0.031670641
-3.3632722 -5.0321674 -0.031670641
-3.1123116 -5.1911297 -0.031670641
-2.8538537 -5.3375864 -0.031670641
-2.5885212 -5.4711852 -0.031670641
-2.3169529 -5.5916042 -0.031670641
-2.0398033 -5.6985536 -0.031670641
-1.7577399 -5.7917752 -0.031670641
-1.4714422 -5.8710446 -0.031670641
-1.1815999 -5.9361715 -0.031670641
-0.88891113 -5.9869981 -0.031670641
-0.59408104 -6.0234027 -0.031670641
-0.29781982 -6.0452967 -0.031670641
-0.00084119663 -6.052628 -0.031670641
0.29613945 -6.0453792 -0.031670641
0.59240675 -6.0235672 -0.031670641
0.88724691 -5.9872451 -0.031670641
1.1799498 -5.9364996 -0.031670641
1.4698102 -5.8714538 -0.031670641
1.75613 -5.7922635 -0.031670641
2.0382192 -5.69912 -0.031670641
2.3153987 -5.592248 -0.031670641
2.5870004 -5.4719043 -0.031670641
2.85237 -5.3383794 -0.031670641
3.1108687 -5.1919947 -0.031670641
3.3618731 -5.033102 -0.031670641
3.6047792 -4.8620853 -0.031670641
3.8390017 -4.6793566 -0.031670641
4.0639758 -4.4853549 -0.031670641
4.2791605 -4.2805486 -0.031670641
4.4840369 -4.0654302 -0.031670641
4.6781111 -3.840519 -0.031670641
4.8609161 -3.6063559 -0.031670641
5.032012 -3.3635051 -0.031670641
5.1909852 -3.1125522 -0.031670641
5.3374543 -2.8541012 -0.031670641
5.4710655 -2.5887747 -0.031670641
5.5914969 -2.3172121 -0.031670641
5.6984591 -2.0400674 -0.031670641
5.7916937 -1.7580082 -0.031670641
5.8709764 -1.4717141 -0.031670641
5.9361167 -1.1818749 -0.031670641
5.9869571 -0.88918847 -0.031670641
6.023375 -0.59436005 -0.031670641
6.0452828 -0.29809988 -0.031670641
7.1302814 0 -0.030415311
7.1216931 0.34985602 -0.030415311
7.0959492 0.69886929 -0.030415311
7.0531116 1.046199 -0.030415311
6.9932833 1.3910084 -0.030415311
6.9166083 1.7324671 -0.030415311
6.8232722 2.0697522 -0.030415311
6.7134986 2.4020514 -0.030415311
6.587553 2.7285643 -0.030415311
6.4457378 3.0485041 -0.030415311
6.2883954 3.3611004 -0.030415311
6.1159048 3.6655998 -0.030415311
5.9286814 3.9612691 -0.030415311
5.7271757 4.247396 -0.030415311
5.5118737 4.5232911 -0.030415311
5.2832942 4.7882895 -0.030415311
5.0419874 5.0417538 -0.030415311
4.7885346 5.2830725 -0.030415311
4.5235462 5.5116644 -0.030415311
4.2476611 5.7269793 -0.030415311
3.9615438 5.9284978 -0.030415311
3.6658833 6.1157351 -0.030415311
3.3613918 6.28824 -0.030415311
3.0488029 6.4455967 -0.030415311
2.7288694 6.5874262 -0.030415311
2.4023626 6.7133875 -0.030415311
2.0700684 6.8231759 -0.030415311
1.7327875 6.9165282 -0.030415311
1.3913324 6.9932189 -0.030415311
1.0465257 7.0530629 -0.030415311
0.69919801 7.0959167 -0.030415311
0.35018596 7.1216769 -0.030415311
0.00033032309 7.1302814 -0.030415311
-0.34952611 7.1217093 -0.030415311
-0.69854051 7.0959816 -0.030415311
-1.0458722 7.0531602 -0.030415311
-1.3906845 6.9933476 -0.030415311
-1.7321466 6.9166889 -0.030415311
-2.0694361 6.8233681 -0.030415311
-2.4017406 6.7136097 -0.030415311
-2.7282591 6.5876794 -0.030415311
-3.0482056 6.445879 -0.030415311
-3.3608091 6.2885513 -0.030415311
-3.6653166 6.1160746 -0.030415311
-3.9609945 5.928865 -0.030415311
-4.2471309 5.7273726 -0.030415311
-4.5230355 5.5120835 -0.030415311
-4.7880449 5.2835159 -0.030415311
-5.0415201 5.0422206 -0.030415311
-5.2828503 4.7887793 -0.030415311
-5.5114546 4.5238018 -0.030415311
-5.7267823 4.2479267 -0.030415311
-5.9283142 3.9618185 -0.030415311
-6.1155653 3.6661665 -0.030415311
-6.288084 3.3616831 -0.030415311
-6.4454556 3.0491014 -0.030415311
-6.5872998 2.7291746 -0.030415311
-6.7132759 2.4026735 -0.030415311
-6.8230801 2.0703845 -0.030415311
-6.9164481 1.7331079 -0.030415311
-6.9931545 1.3916564 -0.030415311
-7.0530148 1.0468525 -0.030415311
-7.0958843 0.69952673 -0.030415311
-7.1216607 0.35051587 -0.030415311
-7.1302814 0.00066064618 -0.030415311
-7.1217256 -0.34919617 -0.030415311
-7.096014 -0.69821179 -0.030415311
-7.0532084 -1.0455455 -0.030415311
-6.993412 -1.3903605 -0.030415311
-6.916769 -1.7318262 -0.030415311
-6.8234639 -2.0691199 -0.030415311
-6.7137213 -2.4014294 -0.030415311
-6.5878057 -2.7279539 -0.030415311
-6.4460201 -3.0479069 -0.030415311
-6.2887068 -3.3605177 -0.030415311
-6.1162443 -3.6650333 -0.030415311
-5.9290481 -3.9607198 -0.030415311
-5.7275691 -4.2468653 -0.030415311
-5.5122929 -4.5227804 -0.030415311
-5.2837377 -4.7878003 -0.030415311
-5.0424542 -5.0412865 -0.030415311
-4.7890239 -5.2826285 -0.030415311
-4.5240569 -5.5112453 -0.030415311
-4.2481918 -5.7265854 -0.030415311
-3.9620931 -5.9281306 -0.030415311
-3.6664498 -6.1153955 -0.030415311
-3.3619745 -6.2879286 -0.030415311
-3.0494001 -6.4453144 -0.030415311
-2.7294798 -6.5871735 -0.030415311
-2.4029846 -6.7131648 -0.030415311
-2.0707004 -6.8229842 -0.030415311
-1.7334282 -6.9163675 -0.030415311
-1.3919803 -6.9930897 -0.030415311
-1.0471792 -7.0529661 -0.030415311
-0.69985545 -7.0958524 -0.030415311
-0.35084578 -7.1216445 -0.030415311
-0.00099096925 -7.1302814 -0.030415311
0.34886625 -7.1217418 -0.030415311
0.69788307 -7.0960464 -0.030415311
1.0452187 -7.053257 -0.030415311
1.3900365 -6.9934764 -0.030415311
1.7315058 -6.9168491 -0.030415311
2.0688038 -6.8235598 -0.030415311
2.4011185 -6.7138324 -0.030415311
2.7276487 -6.5879321 -0.030415311
3.0476084 -6.4461617 -0.030415311
3.3602264 -6.2888627 -0.030415311
3.6647499 -6.1164141 -0.030415311
3.9604452 -5.9292316 -0.030415311
4.2466002 -5.727766 -0.030415311
4.5225248 -5.5125027 -0.030415311
4.7875552 -5.2839594 -0.030415311
5.0410528 -5.0426879 -0.030415311
5.2824068 -4.7892685 -0.030415311
5.5110354 -4.5243125 -0.030415311
5.7263885 -4.2484574 -0.030415311
5.927947 -3.9623678 -0.030415311
6.1152253 -3.6667333 -0.030415311
6.1223049 -3.2737849 0.038806144
6.4451728 -3.0496986 -0.030415311
6.5870471 -2.729785 -0.030415311
6.7130532 -2.4032955 -0.030415311
6.8228884 -2.0710166 -0.030415311
6.9162874 -1.7337487 -0.030415311
6.9930253 -1.3923043 -0.030415311
7.0529175 -1.047506 -0.030415311
7.09582 -0.70018417 -0.030415311
7.1216283 -0.35117573 -0.030415311
8.6067657 0 -0.031270027
8.5963993 0.42230153 -0.031270027
8.5653248 0.84358579 -0.031270027
8.5136156 1.2628379 -0.031270027
8.4413986 1.6790478 -0.031270027
8.3488474 2.091213 -0.031270027
8.2361832 2.4983406 -0.031270027
8.1036787 2.8994501 -0.031270027
7.951653 3.2935746 -0.031270027
7.7804723 3.6797652 -0.031270027
7.5905485 4.0570912 -0.031270027
7.38234 4.4246445 -0.031270027
7.1563473 4.7815385 -0.031270027
6.9131155 5.1269145 -0.031270027
6.6532307 5.4599395 -0.031270027
6.3773184 5.7798123 -0.031270027
6.0860434 6.0857615 -0.031270027
5.7801075 6.3770504 -0.031270027
5.460248 6.6529775 -0.031270027
5.1272345 6.912878 -0.031270027
4.7818699 7.156126 -0.031270027
4.4249864 7.3821349 -0.031270027
4.0574431 7.5903606 -0.031270027
3.6801257 7.7803016 -0.031270027
3.2939429 7.9515004 -0.031270027
2.8998253 8.1035442 -0.031270027
2.4987223 8.2360678 -0.031270027
2.0915999 8.3487501 -0.031270027
1.6794389 8.4413214 -0.031270027
1.2632322 8.5135574 -0.031270027
0.84398258 8.5652857 -0.031270027
0.42269978 8.5963793 -0.031270027
0.00039872387 8.6067657 -0.031270027
-0.42190328 8.5964184 -0.031270027
-0.84318894 8.5653639 -0.031270027
-1.2624434 8.5136747 -0.031270027
-1.6786568 8.4414768 -0.031270027
-2.0908263 8.3489437 -0.031270027
-2.4979591 8.2362986 -0.031270027
-2.8990746 8.1038132 -0.031270027
-3.2932062 7.9518056 -0.031270027
-3.6794047 7.7806425 -0.031270027
-4.0567398 7.5907364 -0.031270027
-4.4243026 7.3825445 -0.031270027
-4.7812071 7.156569 -0.031270027
-5.1265941 6.913353 -0.031270027
-5.4596314 6.6534834 -0.031270027
-5.7795167 6.3775859 -0.031270027
-6.0854797 6.0863252 -0.031270027
-6.3767829 5.7804031 -0.031270027
-6.6527247 5.460556 -0.031270027
-6.9126406 5.1275549 -0.031270027
-7.1559043 4.7822018 -0.031270027
-7.3819299 4.4253283 -0.031270027
-7.5901728 4.0577946 -0.031270027
-7.7801313 3.680486 -0.031270027
-7.9513478 3.2943113 -0.031270027
-8.1034098 2.9002008 -0.031270027
-8.2359514 2.4991038 -0.031270027
-8.3486528 2.0919867 -0.031270027
-8.4412432 1.67983 -0.031270027
-8.5134993 1.2636267 -0.031270027
-8.5652466 0.84437937 -0.031270027
-8.5963602 0.42309803 -0.031270027
-8.6067657 0.00079744775 -0.031270027
-8.5964384 -0.42150503 -0.031270027
-8.565402 -0.84279215 -0.031270027
-8.5137329 -1.2620491 -0.031270027
-8.4415541 -1.6782657 -0.031270027
-8.349041 -2.0904396 -0.031270027
-8.2364149 -2.4975777 -0.031270027
-8.1039476 -2.898699 -0.031270027
-7.9519582 -3.2928379 -0.031270027
-7.7808132 -3.6790442 -0.031270027
-7.5909243 -4.0563879 -0.031270027
-7.3827496 -4.4239602 -0.031270027
-7.1567903 -4.7808757 -0.031270027
-6.9135904 -5.1262736 -0.031270027
-6.6537366 -5.4593229 -0.031270027
-6.3778539 -5.7792211 -0.031270027
-6.0866075 -6.0851974 -0.031270027
-5.7806983 -6.3765149 -0.031270027
-5.4608641 -6.6524715 -0.031270027
-5.1278749 -6.9124031 -0.031270027
-4.7825332 -7.1556826 -0.031270027
-4.4256701 -7.3817248 -0.031270027
-4.0581465 -7.5899844 -0.031270027
-3.6808465 -7.7799606 -0.031270027
-3.2946796 -7.9511952 -0.031270027
-2.9005761 -8.1032753 -0.031270027
-2.4994853 -8.235836 -0.031270027
-2.0923734 -8.3485565 -0.031270027
-1.680221 -8.4411659 -0.031270027
-1.264021 -8.5134401 -0.031270027
-0.84477615 -8.5652075 -0.031270027
-0.42349628 -8.5963402 -0.031270027
-0.0011961716 -8.6067657 -0.031270027
0.42110682 -8.5964575 -0.031270027
0.84239537 -8.5654411 -0.031270027
1.2616546 -8.5137911 -0.031270027
1.6778747 -8.4416323 -0.031270027
2.0900528 -8.3491373 -0.031270027
2.497196 -8.2365303 -0.031270027
2.8983238 -8.1040812 -0.031270027
3.2924695 -7.9521108 -0.031270027
3.6786838 -7.7809834 -0.031270027
4.0560365 -7.5911121 -0.031270027
4.4236183 -7.3829546 -0.031270027
4.7805438 -7.157012 -0.031270027
5.1259537 -6.9138279 -0.031270027
5.4590149 -6.6539893 -0.031270027
5.7789259 -6.3781214 -0.031270027
6.0849156 -6.0868893 -0.031270027
6.3762474 -5.7809939 -0.031270027
6.0609102 -4.9757347 0.20262064
6.1441469 -4.5583959 0.26109332
6.0423894 -4.0388637 0.37803864
6.0692496 -3.6391656 0.43651131
6.0718374 -3.2467983 0.49498397
6.3967161 -3.0267701 0.43651131
7.2442832 -3.0021548 0.20262064
8.1031408 -2.9009516 -0.031270027
8.2357197 -2.499867 -0.031270027
8.3484592 -2.0927601 -0.031270027
8.4410877 -1.6806121 -0.031270027
8.513382 -1.2644155 -0.031270027
8.5651674 -0.845173 -0.031270027
8.5963211 -0.42389449 -0.031270027
10.684781 0 -0.014469192
10.671912 0.52426189 -0.014469192
10.633334 1.0472609 -0.014469192
10.569141 1.5677371 -0.014469192
10.479488 2.0844367 -0.014469192
10.364591 2.5961151 -0.014469192
10.224725 3.1015394 -0.014469192
10.060229 3.5994925 -0.014469192
9.8714981 4.0887747 -0.014469192
9.658987 4.5682068 -0.014469192
9.4232092 5.0366344 -0.014469192
9.1647301 5.4929295 -0.014469192
8.8841743 5.9359922 -0.014469192
8.5822163 6.3647552 -0.014469192
8.2595854 6.7781858 -0.014469192
7.9170566 7.1752887 -0.014469192
7.5554562 7.5551062 -0.014469192
7.1756554 7.9167242 -0.014469192
6.7785687 8.2592707 -0.014469192
6.3651528 8.5819216 -0.014469192
5.9364038 8.8838987 -0.014469192
5.4933538 9.1644754 -0.014469192
5.0370712 9.4229755 -0.014469192
4.5686541 9.6587753 -0.014469192
4.089232 9.8713083 -0.014469192
3.5999584 10.060062 -0.014469192
3.1020131 10.224582 -0.014469192
2.5965953 10.36447 -0.014469192
2.0849223 10.479392 -0.014469192
1.5682268 10.569069 -0.014469192
1.0477536 10.633286 -0.014469192
0.52475631 10.671887 -0.014469192
0.00049499166 10.684781 -0.014469192
-0.52376753 10.671936 -0.014469192
-1.0467683 10.633383 -0.014469192
-1.5672475 10.569214 -0.014469192
-2.0839512 10.479585 -0.014469192
-2.5956349 10.364711 -0.014469192
-3.1010659 10.224869 -0.014469192
-3.5990264 10.060395 -0.014469192
-4.0883169 9.8716879 -0.014469192
-4.5677595 9.6591988 -0.014469192
-5.0361981 9.4234419 -0.014469192
-5.4925051 9.1649847 -0.014469192
-5.9355807 8.884449 -0.014469192
-6.3643575 8.5825119 -0.014469192
-6.7778034 8.2598991 -0.014469192
-7.174922 7.9173889 -0.014469192
-7.5547562 7.5558062 -0.014469192
-7.9163918 7.1760221 -0.014469192
-8.2589569 6.7789512 -0.014469192
-8.5816269 6.3655505 -0.014469192
-8.8836241 5.9368153 -0.014469192
-9.1642208 5.4937787 -0.014469192
-9.4227419 5.0375075 -0.014469192
-9.6585636 4.5691018 -0.014469192
-9.8711195 4.0896893 -0.014469192
-10.059896 3.6004245 -0.014469192
-10.038539 3.046078 0.033066612
-10.36435 2.5970755 -0.014469192
-10.479295 2.0854077 -0.014469192
-10.568996 1.5687164 -0.014469192
-10.633237 1.0482461 -0.014469192
-10.671864 0.52525073 -0.014469192
-10.684781 0.00098998332 -0.014469192
-10.67196 -0.52327311 -0.014469192
-10.633431 -1.0462757 -0.014469192
-10.569286 -1.5667578 -0.014469192
-10.479681 -2.0834658 -0.014469192
-10.364831 -2.5951548 -0.014469192
-10.225013 -3.1005921 -0.014469192
-10.060562 -3.5985603 -0.014469192
-9.8718767 -4.0878596 -0.014469192
-9.6594105 -4.5673118 -0.014469192
-9.4236755 -5.0357614 -0.014469192
-9.1652393 -5.4920802 -0.014469192
-8.8847237 -5.9351687 -0.014469192
-8.5828066 -6.3639603 -0.014469192
-8.2602129 -6.777421 -0.014469192
-7.9177213 -7.1745548 -0.014469192
-7.5561562 -7.5544062 -0.014469192
-7.1763887 -7.916059 -0.014469192
-6.7793341 -8.2586432 -0.014469192
-6.3659477 -8.5813322 -0.014469192
-5.9372268 -8.8833494 -0.014469192
-5.4942031 -9.1639662 -0.014469192
-5.0379443 -9.4225082 -0.014469192
-4.5695491 -9.6583529 -0.014469192
-4.0901465 -9.8709297 -0.014469192
-3.6008906 -10.059729 -0.014469192
-3.1029606 -10.224294 -0.014469192
-2.5975554 -10.364229 -0.014469192
-2.0858932 -10.479198 -0.014469192
-1.569206 -10.568923 -0.014469192
-1.0487387 -10.633188 -0.014469192
-0.52574509 -10.671839 -0.014469192
-0.001484975 -10.684781 -0.014469192
0.52277875 -10.671985 -0.014469192
1.045783 -10.63348 -0.014469192
1.5662682 -10.569359 -0.014469192
2.0829802 -10.479778 -0.014469192
2.5946746 -10.364951 -0.014469192
3.1001184 -10.225156 -0.014469192
3.5980942 -10.060729 -0.014469192
4.0874023 -9.8720665 -0.014469192
4.5668645 -9.6596222 -0.014469192
5.0353251 -9.4239082 -0.014469192
5.4916558 -9.165493 -0.014469192
5.9347572 -8.8849993 -0.014469192
6.3635626 -8.5831013 -0.014469192
6.7770381 -8.2605267 -0.014469192
7.1741881 -7.9180536 -0.014469192
7.5540562 -7.5565062 -0.014469192
7.9157267 -7.1767554 -0.014469192
6.0060573 -4.9307032 0.69856787
6.0847354 -4.5143175 0.74610364
6.1373963 -4.1023684 0.79363948
6.1646791 -3.6963859 0.84117526
6.1673074 -3.2978492 0.88871109
6.4972944 -3.0743613 0.84117526
7.3581882 -3.0493591 0.65103203
8.4134512 -3.0120437 0.41335303
10.224151 -3.1034341 -0.014469192
10.364109 -2.5980356 -0.014469192
10.479102 -2.0863786 -0.014469192
10.568851 -1.5696956 -0.014469192
10.63314 -1.0492313 -0.014469192
10.671814 -0.52623951 -0.014469192
13.175629 0 0.15811516
13.15976 0.64647841 0.15811516
14.09071 1.3877726 -0.024115041
14.005646 2.0774791 -0.024115041
13.886842 2.762181 -0.024115041
13.734586 3.4402289 -0.024115041
13.549244 4.1099896 -0.024115041
13.331263 4.7698498 -0.024115041
13.081166 5.4182191 -0.024115041
12.79956 6.0535364 -0.024115041
12.487119 6.6742711 -0.024115041
12.144596 7.2789283 -0.024115041
11.77282 7.8660502 -0.024115041
11.372682 8.4342241 -0.024115041
10.945148 8.9820795 -0.024115041
10.491248 9.5082979 -0.024115041
10.012075 10.011612 -0.024115041
9.5087843 10.490808 -0.024115041
8.9825869 10.944732 -0.024115041
8.4347506 11.372291 -0.024115041
7.8665957 11.772454 -0.024115041
7.2794909 12.144259 -0.024115041
6.67485 12.486809 -0.024115041
6.0541296 12.799278 -0.024115041
5.4188251 13.080915 -0.024115041
4.7704673 13.331041 -0.024115041
4.1106172 13.549053 -0.024115041
3.4408653 13.734426 -0.024115041
2.7628243 13.886714 -0.024115041
2.0781279 14.005549 -0.024115041
1.3884254 14.090646 -0.024115041
0.69537824 14.141799 -0.024115041
0.00065593573 14.158885 -0.024115041
-0.69406796 14.141863 -0.024115041
-1.3871198 14.090775 -0.024115041
-2.0768301 14.005741 -0.024115041
-2.7615376 13.88697 -0.024115041
-3.4395926 13.734745 -0.024115041
-4.1093621 13.549434 -0.024115041
-4.7692318 13.331483 -0.024115041
-5.417613 13.081418 -0.024115041
-6.0529437 12.79984 -0.024115041
-6.6736927 12.487428 -0.024115041
-7.2783656 12.144934 -0.024115041
-7.8655052 11.773184 -0.024115041
-8.4336967 11.373073 -0.024115041
-8.9815722 10.945564 -0.024115041
-9.5078125 10.491689 -0.024115041
-10.011147 10.012539 -0.024115041
-10.490367 9.5092697 -0.024115041
-10.944316 8.9830933 -0.024115041
-11.371901 8.4352779 -0.024115041
-11.77209 7.8671412 -0.024115041
-12.143922 7.2800531 -0.024115041
-12.4865 6.6754284 -0.024115041
-10.132541 4.7933221 0.52257562
-10.17385 4.2151132 0.55902165
-10.183266 3.6445787 0.59546769
-10.161647 3.0834336 0.63191372
-12.017484 3.0113139 0.30389935
-13.886586 2.7634676 -0.024115041
-14.005453 2.0787768 -0.024115041
-14.090581 1.3890781 -0.024115041
-14.141767 0.69603336 -0.024115041
-14.158885 0.0013118715 -0.024115041
-14.141895 -0.69341278 -0.024115041
-14.090838 -1.3864671 -0.024115041
-14.005837 -2.0761814 -0.024115041
-13.887097 -2.7608943 -0.024115041
-13.734904 -3.4389565 -0.024115041
-13.549624 -4.1087341 -0.024115041
-13.331704 -4.7686143 -0.024115041
-13.081669 -5.417007 -0.024115041
-12.80012 -6.0523505 -0.024115041
-12.487737 -6.6731143 -0.024115041
-12.145271 -7.2778029 -0.024115041
-11.773548 -7.8649597 -0.024115041
-11.373463 -8.4331703 -0.024115041
-10.94598 -8.9810658 -0.024115041
-10.492129 -9.5073261 -0.024115041
-10.013003 -10.010684 -0.024115041
-9.5097561 -10.489926 -0.024115041
-8.9836006 -10.943899 -0.024115041
-8.4358044 -11.37151 -0.024115041
-7.8676867 -11.771726 -0.024115041
-7.2806158 -12.143585 -0.024115041
-6.6760068 -12.486191 -0.024115041
-6.0553155 -12.798717 -0.024115041
-5.4200373 -13.080414 -0.024115041
-4.7717023 -13.330599 -0.024115041
-4.1118727 -13.548673 -0.024115041
-3.4421377 -13.734107 -0.024115041
-2.764111 -13.886457 -0.024115041
-2.0794256 -14.005357 -0.024115041
-1.3897309 -14.090517 -0.024115041
-0.69668853 -14.141734 -0.024115041
-0.0019678073 -14.158885 -0.024115041
0.69275761 -14.141928 -0.024115041
1.3858143 -14.090902 -0.024115041
2.0755324 -14.005934 -0.024115041
2.760251 -13.887225 -0.024115041
3.4383202 -13.735064 -0.024115041
4.1081066 -13.549815 -0.024115041
4.7679968 -13.331925 -0.024115041
5.4164009 -13.08192 -0.024115041
6.0517578 -12.800401 -0.024115041
6.6725359 -12.488046 -0.024115041
7.2772403 -12.145608 -0.024115041
7.8644142 -11.773912 -0.024115041
8.4326429 -11.373854 -0.024115041
8.9805584 -10.946396 -0.024115041
9.5068398 -10.49257 -0.024115041
10.01022 -10.013467 -0.024115041
10.489486 -9.5102425 -0.024115041
6.0797129 -4.9911709 1.1421583
6.0014238 -4.452508 1.2150503
6.0491719 -4.0433969 1.2514964
6.0716238 -3.6405892 1.2879425
6.0695257 -3.2455623 1.3243885
6.3992186 -3.0279541 1.2879425
7.266757 -3.0114684 1.1421583
8.5166302 -3.0489821 0.92348206
9.9731884 -3.0272572 0.66835976
13.733948 -3.4427741 -0.024115041
13.88633 -2.7647543 -0.024115041
14.00526 -2.0800743 -0.024115041
14.090452 -1.3903837 -0.024115041
13.159639 -0.64891702 0.15811516
13.094472 0 0.93422246
13.0787 0.64249635 0.93422246
20.534361 2.022398 -0.024861556
20.410397 3.0275059 -0.024861556
20.237265 4.0253205 -0.024861556
20.015383 5.0134382 -0.024861556
19.745283 5.9894791 -0.024861556
19.42762 6.9510918 -0.024861556
19.063156 7.8959594 -0.024861556
18.652771 8.821806 -0.024861556
18.197451 9.7264013 -0.024861556
17.698296 10.607567 -0.024861556
17.156504 11.463179 -0.024861556
16.573385 12.291177 -0.024861556
15.950341 13.089565 -0.024861556
15.288874 13.856422 -0.024861556
14.590576 14.5899 -0.024861556
13.857131 15.288232 -0.024861556
13.090304 15.949735 -0.024861556
12.291945 16.572815 -0.024861556
11.463973 17.155973 -0.024861556
10.608386 17.697803 -0.024861556
9.7272444 18.197001 -0.024861556
8.82267 18.652361 -0.024861556
7.8968425 19.06279 -0.024861556
6.9519916 19.427298 -0.024861556
5.9903936 19.745007 -0.024861556
5.0143657 20.01515 -0.024861556
4.026258 20.237078 -0.024861556
3.0284514 20.410257 -0.024861556
2.0233493 20.534267 -0.024861556
1.0133733 20.608812 -0.024861556
0.00095589377 20.633713 -0.024861556
-1.0114638 20.608908 -0.024861556
-2.0214467 20.534456 -0.024861556
-3.0265603 20.410538 -0.024861556
-4.0243831 20.237452 -0.024861556
-5.0125113 20.015615 -0.024861556
-5.9885645 19.745562 -0.024861556
-6.9501915 19.427942 -0.024861556
-7.8950763 19.063522 -0.024861556
-8.8209419 18.653179 -0.024861556
-9.7255583 18.197901 -0.024861556
-10.606747 17.698786 -0.024861556
-11.462383 17.157036 -0.024861556
-12.290409 16.573954 -0.024861556
-13.088826 15.950948 -0.024861556
-13.855714 15.289515 -0.024861556
-14.589224 14.591252 -0.024861556
-15.28759 13.857839 -0.024861556
-15.949128 13.091043 -0.024861556
-16.572247 12.292712 -0.024861556
-17.155441 11.464768 -0.024861556
-17.697311 10.609206 -0.024861556
-18.19655 9.7280874 -0.024861556
-10.043359 4.7511339 1.186613
-10.08109 4.1766815 1.2118521
-10.087084 3.6101553 1.2370911
-10.062218 3.0532629 1.2623302
-12.124421 3.03811 1.0099397
-20.236893 4.0271955 -0.024861556
-20.410116 3.029397 -0.024861556
-20.534174 2.0243006 -0.024861556
-20.608767 1.0143279 -0.024861556
-20.633713 0.0019117875 -0.024861556
-20.608953 -1.010509 -0.024861556
-20.53455 -2.0204954 -0.024861556
-20.410677 -3.0256147 -0.024861556
-20.237638 -4.0234456 -0.024861556
-20.015846 -5.0115838 -0.024861556
-19.745838 -5.9876494 -0.024861556
-19.428265 -6.9492917 -0.024861556
-19.063889 -7.8941927 -0.024861556
-18.653587 -8.8200779 -0.024861556
-18.198353 -9.7247152 -0.024861556
-17.699278 -10.605927 -0.024861556
-17.157566 -11.461589 -0.024861556
-16.574524 -12.28964 -0.024861556
-15.951553 -13.088088 -0.024861556
-15.290157 -13.855006 -0.024861556
-14.591928 -14.588549 -0.024861556
-13.858547 -15.286947 -0.024861556
-13.091783 -15.948522 -0.024861556
-12.29348 -16.571676 -0.024861556
-11.465563 -17.154911 -0.024861556
-10.610026 -17.696821 -0.024861556
-9.7289305 -18.196098 -0.024861556
-8.824398 -18.651545 -0.024861556
-7.8986087 -19.062059 -0.024861556
-6.9537916 -19.426655 -0.024861556
-5.9922233 -19.744452 -0.024861556
-5.0162201 -20.014685 -0.024861556
-4.0281329 -20.236706 -0.024861556
-3.0303423 -20.409977 -0.024861556
-2.0252519 -20.534081 -0.024861556
-1.0152826 -20.608719 -0.024861556
-0.0028676814 -20.633713 -0.024861556
1.0095543 -20.609001 -0.024861556
2.0195441 -20.534643 -0.024861556
3.0246692 -20.410818 -0.024861556
4.0225077 -20.237823 -0.024861556
5.0106564 -20.016079 -0.024861556
5.9867349 -19.746117 -0.024861556
6.9483914 -19.428587 -0.024861556
7.8933096 -19.064253 -0.024861556
8.8192139 -18.653996 -0.024861556
9.7238722 -18.198803 -0.024861556
10.605106 -17.699768 -0.024861556
11.460794 -17.158098 -0.024861556
12.288873 -16.575092 -0.024861556
13.087349 -15.95216 -0.024861556
13.854298 -15.290799 -0.024861556
14.587873 -14.592604 -0.024861556
15.286305 -13.859256 -0.024861556
15.947915 -13.092521 -0.024861556
16.571106 -12.294248 -0.024861556
7.0926762 -4.7408977 1.5147207
7.1465945 -4.2851491 1.5399598
7.1732845 -3.8357761 1.5651988
7.1735134 -3.3943317 1.5904379
7.3314204 -3.0382659 1.5904379
8.4056244 -3.0092416 1.4642426
19.744173 -5.9931378 -0.024861556
20.014454 -5.0171471 -0.024861556
20.236519 -4.0290704 -0.024861556
20.409836 -3.0312879 -0.024861556
20.533987 -2.0262032 -0.024861556
13.07858 -0.64491987 0.93422246
